  -90.0878906250000        30.2307128906250                2
  -90.0860595703125        30.2325439453125                1
  -90.1446533203125        30.1721191406250               13
  -90.1428222656250        30.1739501953125                6
  -90.0897216796875        30.2270507812500                5
  -90.0860595703125        30.2307128906250                1
  -90.0842285156250        30.2325439453125                4
  -90.0823974609375        30.2343750000000                1
  -90.1428222656250        30.1721191406250               10
  -90.1409912109375        30.1739501953125                1
  -90.0823974609375        30.2325439453125                3
  -90.0805664062500        30.2343750000000                2
  -90.1409912109375        30.1721191406250                9
  -90.1116943359375        30.2014160156250                4
  -90.0878906250000        30.2252197265625                6
  -90.0805664062500        30.2325439453125                2
  -90.0787353515625        30.2343750000000                3
  -90.0860595703125        30.2252197265625                4
  -90.0769042968750        30.2343750000000                5
  -90.0750732421875        30.2362060546875                3
  -90.1171875000000        30.1922607421875                7
  -90.1098632812500        30.1995849609375               16
  -90.0732421875000        30.2362060546875                3
  -90.0714111328125        30.2380371093750                3
  -90.0695800781250        30.2398681640625                1
  -90.1245117187500        30.1831054687500                2
  -90.1226806640625        30.1849365234375                3
  -90.1208496093750        30.1867675781250               10
  -90.1190185546875        30.1885986328125               10
  -90.1171875000000        30.1904296875000               10
  -90.1153564453125        30.1922607421875               10
  -90.0842285156250        30.2233886718750                2
  -90.0714111328125        30.2362060546875                1
  -90.0695800781250        30.2380371093750                3
  -90.0677490234375        30.2398681640625                1
  -90.0659179687500        30.2416992187500                1
  -90.1245117187500        30.1812744140625                3
  -90.1226806640625        30.1831054687500                5
  -90.1208496093750        30.1849365234375                2
  -90.1190185546875        30.1867675781250                2
  -90.1153564453125        30.1904296875000               11
  -90.1080322265625        30.1977539062500               28
  -90.0823974609375        30.2233886718750                4
  -90.0659179687500        30.2398681640625                6
  -90.0640869140625        30.2416992187500                1
  -90.1245117187500        30.1794433593750                1
  -90.1226806640625        30.1812744140625                5
  -90.1208496093750        30.1831054687500                1
  -90.1190185546875        30.1849365234375                1
  -90.1080322265625        30.1959228515625                3
  -90.0805664062500        30.2233886718750                1
  -90.0640869140625        30.2398681640625                1
  -90.0622558593750        30.2416992187500                4
  -90.1226806640625        30.1794433593750                6
  -90.1208496093750        30.1812744140625                1
  -90.1190185546875        30.1831054687500                1
  -90.1171875000000        30.1849365234375                1
  -90.1135253906250        30.1885986328125               13
  -90.1062011718750        30.1959228515625                4
  -90.0622558593750        30.2398681640625                2
  -90.1226806640625        30.1776123046875                2
  -90.1208496093750        30.1794433593750                3
  -90.1153564453125        30.1849365234375                1
  -90.1135253906250        30.1867675781250                2
  -90.1116943359375        30.1885986328125                3
  -90.1062011718750        30.1940917968750               12
  -90.1208496093750        30.1776123046875                1
  -90.1135253906250        30.1849365234375                1
  -90.1116943359375        30.1867675781250               10
  -90.1098632812500        30.1885986328125                5
  -90.1062011718750        30.1922607421875               11
  -90.1116943359375        30.1849365234375                1
  -90.1098632812500        30.1867675781250                9
  -90.1080322265625        30.1885986328125               12
  -90.1062011718750        30.1904296875000               14
  -90.1098632812500        30.1849365234375                1
  -90.1080322265625        30.1867675781250                1
  -90.1062011718750        30.1885986328125                8
  -90.1043701171875        30.1904296875000                2
  -90.1171875000000        30.1757812500000                1
  -90.1043701171875        30.1885986328125                1
  -90.1025390625000        30.1904296875000                2
  -90.1171875000000        30.1739501953125                2
  -90.1153564453125        30.1757812500000                2
  -90.1007080078125        30.1904296875000                1
  -90.1153564453125        30.1739501953125                2
  -90.1135253906250        30.1757812500000                4
  -90.0988769531250        30.1904296875000                3
  -90.0622558593750        30.2270507812500                1
  -90.1153564453125        30.1721191406250                5
  -90.1135253906250        30.1739501953125                2
  -90.1080322265625        30.1794433593750                1
  -90.0952148437500        30.1922607421875                1
  -90.0604248046875        30.2270507812500                3
  -90.0585937500000        30.2288818359375                3
  -90.1135253906250        30.1721191406250                4
  -90.1116943359375        30.1739501953125                1
  -90.1098632812500        30.1757812500000                2
  -90.1062011718750        30.1794433593750                4
  -90.1025390625000        30.1831054687500                4
  -90.0933837890625        30.1922607421875                1
  -90.0878906250000        30.1977539062500                1
  -90.0604248046875        30.2252197265625                3
  -90.0585937500000        30.2270507812500                3
  -90.0567626953125        30.2288818359375                3
  -90.1116943359375        30.1721191406250                3
  -90.1098632812500        30.1739501953125                3
  -90.1080322265625        30.1757812500000                3
  -90.1043701171875        30.1794433593750                2
  -90.1025390625000        30.1812744140625                4
  -90.0915527343750        30.1922607421875                1
  -90.0897216796875        30.1940917968750                5
  -90.0878906250000        30.1959228515625                3
  -90.0860595703125        30.1977539062500                2
  -90.0604248046875        30.2233886718750                3
  -90.0585937500000        30.2252197265625                3
  -90.0567626953125        30.2270507812500                3
  -90.0549316406250        30.2288818359375                1
  -90.1116943359375        30.1702880859375                1
  -90.1098632812500        30.1721191406250                6
  -90.1080322265625        30.1739501953125                5
  -90.1062011718750        30.1757812500000                2
  -90.0897216796875        30.1922607421875                2
  -90.0878906250000        30.1940917968750                1
  -90.0860595703125        30.1959228515625                2
  -90.0842285156250        30.1977539062500                2
  -90.0604248046875        30.2215576171875                2
  -90.0585937500000        30.2233886718750                3
  -90.0567626953125        30.2252197265625                3
  -90.0549316406250        30.2270507812500                1
  -90.1080322265625        30.1721191406250                5
  -90.1062011718750        30.1739501953125                3
  -90.1043701171875        30.1757812500000                1
  -90.0878906250000        30.1922607421875                1
  -90.0842285156250        30.1959228515625                1
  -90.0823974609375        30.1977539062500                4
  -90.0805664062500        30.1995849609375                2
  -90.0640869140625        30.2160644531250                1
  -90.0622558593750        30.2178955078125                2
  -90.0604248046875        30.2197265625000                3
  -90.0585937500000        30.2215576171875                3
  -90.0567626953125        30.2233886718750                3
  -90.0549316406250        30.2252197265625                1
  -90.0256347656250        30.2545166015625                4
  -90.0805664062500        30.1977539062500                1
  -90.0787353515625        30.1995849609375                1
  -90.0622558593750        30.2160644531250                1
  -90.0604248046875        30.2178955078125                3
  -90.0585937500000        30.2197265625000                3
  -90.0567626953125        30.2215576171875                3
  -90.0549316406250        30.2233886718750                1
  -90.0457763671875        30.2325439453125                2
  -90.0439453125000        30.2343750000000                1
  -90.0238037109375        30.2545166015625                8
  -90.0769042968750        30.1995849609375                1
  -90.0750732421875        30.2014160156250                1
  -90.0585937500000        30.2178955078125                2
  -90.0567626953125        30.2197265625000                1
  -90.0549316406250        30.2215576171875                1
  -90.0439453125000        30.2325439453125                3
  -90.0421142578125        30.2343750000000                4
  -90.0402832031250        30.2362060546875                2
  -90.0219726562500        30.2545166015625                7
  -90.0750732421875        30.1995849609375                1
  -90.0732421875000        30.2014160156250                2
  -90.0402832031250        30.2343750000000                4
  -90.0384521484375        30.2362060546875                4
  -90.0219726562500        30.2526855468750                3
  -90.0201416015625        30.2526855468750               12
  -90.0183105468750        30.2545166015625               25
  -90.0183105468750        30.2526855468750               20
  -90.0823974609375        30.1867675781250                2
  -90.0183105468750        30.2508544921875               11
  -90.0164794921875        30.2526855468750                1
  -90.0842285156250        30.1831054687500                2
  -90.0823974609375        30.1849365234375                4
  -90.0164794921875        30.2508544921875               16
  -90.0146484375000        30.2526855468750                8
  -90.0842285156250        30.1812744140625                7
  -90.0823974609375        30.1831054687500                7
  -90.0805664062500        30.1849365234375                1
  -90.0164794921875        30.2490234375000               17
  -90.0146484375000        30.2508544921875                8
  -90.0823974609375        30.1812744140625               13
  -90.0164794921875        30.2471923828125               15
  -89.9853515625000        30.2783203125000               26
  -90.0146484375000        30.2490234375000                8
  -90.0128173828125        30.2508544921875               82
  -90.0201416015625        30.2416992187500                3
  -90.0164794921875        30.2453613281250                8
  -90.0146484375000        30.2471923828125                5
  -90.0109863281250        30.2508544921875               74
  -90.0201416015625        30.2398681640625                4
  -90.0183105468750        30.2416992187500                5
  -90.0164794921875        30.2435302734375               10
  -90.0146484375000        30.2453613281250                8
  -90.0128173828125        30.2471923828125                1
  -90.0164794921875        30.2416992187500                2
  -90.0146484375000        30.2435302734375                1
  -89.9780273437500        30.2508544921875                7
  -89.9743652343750        30.2508544921875              134
  -89.9670410156250        30.2508544921875              133
  -89.8388671875000        30.1025390625000              798
  -89.4488525390625        30.1684570312500               36
  -89.4470214843750        30.1684570312500               23
  -89.4580078125000        30.0146484375000                7
  -89.4030761711730        29.9340820333559                2
  -89.3957519524229        29.9377441427312               31
  -89.3847656242978        29.9414062521065             1176
  -89.3774414073069        29.9450683597227              914
  -89.3701171885568        29.9487304690980               44
  -89.3627929698067        29.9523925784732              398
  -89.3518066399224        29.9560546896078               11
  -89.3444824274968        29.9597167968750                1
  -89.3371582041815        29.9633789065991                2
  -89.3298339854314        29.9670410159744                2
  -89.3225097712492        29.9707031250000                3
  -89.3115234431251        29.9743652343750                3
  -89.3041992243759        29.9780273437500                2
  -89.2968750056267        29.9816894531250                1
  -89.2895507805466        29.9853515646103                1
  -89.2785644524215        29.9890136739856                2
  -89.2712402336713        29.9926757833609                4
  -89.2639160166808        29.9963378909767                2
  -89.2565917961712        30.0000000021115                2
  -89.2492675791807        30.0036621097272                3
  -89.2419433604306        30.0073242191025                1
  -89.2346191416805        30.0109863284778                2
  -89.2236328117957        30.0146484396128                2
  -89.2163085993851        30.0183105468750              977
  -89.2089843760553        30.0219726566037                3
  -89.2016601573052        30.0256347659790                2
  -89.1943359385551        30.0292968753542                2
  -89.1870117198050        30.0329589847295                6
  -89.1796875010550        30.0366210941048                4
  -89.1723632823049        30.0402832034801                4
  -89.1613769524199        30.0439453146153                4
  -89.1540527400167        30.0476074218750                3
  -89.1467285166796        30.0512695316060                4
  -89.1394042961696        30.0549316427412                3
  -89.1320800791795        30.0585937503565                5
  -89.1247558586694        30.0622558614918                4
  -89.1174316416793        30.0659179691071                3
  -89.1101074211692        30.0695800802425                3
  -89.1027832041792        30.0732421878577                3
  -89.0917968806484        30.0769042968750                3
  -89.0844726618992        30.0805664062500                5
  -89.0771484431500        30.0842285156250                5
  -89.0698242180436        30.0878906271190                7
  -89.0588378962767        30.0915527343750               27
  -89.0405273494025        30.0952148437500               14
  -89.0222167961683        30.0988769552450                1
  -89.0075683586682        30.1025390646203                1
  -88.9892578181550        30.1062011718750               65
  -88.9709472666784        30.1098632816106               95
  -88.9526367198033        30.1135253909858              183
  -88.9343261711678        30.1171875021215               15
  -88.9160156260531        30.1208496097364                7
  -88.9013671885531        30.1245117191117               79
  -88.8830566416780        30.1281738284870                2
  -88.8647460948029        30.1318359378623              268
  -88.8464355479278        30.1354980472376               62
  -88.7915039055420        30.1464843771240              374
  -88.7329101573025        30.1501464847387              628
  -88.6340332041774        30.1538085941140              105
  -79.7900390625000        23.0126953125000              145
  -79.7900401249163        23.0566406250000             1541
  -79.8779286054276        23.4228515625000             5082
  -81.2255836638905        24.4628906250000              240
  -81.4013663372562        24.4043008407385             5905
  -81.4599600872562        24.4043008407385            71112
  -88.5150146484375        30.1534649167682                1
  -88.5076904296875        30.1534649167682                1
  -88.4967041015625        30.1534649167682                1
  -88.4893798828125        30.1534649167682                1
  -88.4820556640625        30.1534649167682                1
  -88.3703613281250        30.2142333984375               69
  -88.4783935546875        30.1534649167682                1
  -82.0605424138042        24.0820312500000               12
  -88.4747314453125        30.1534649167682                1
  -88.4674072265625        30.1534649167682                1
  -88.4619140635523        30.1574707034893              835
  -89.1650390597622        29.3115234457133               46
  -89.1577148410113        29.3188476644658              267
  -89.1357421917742        29.3408203137080               67
  -88.2220458984375        30.2453613281250                1
  -88.1433105468750        30.2398681640625                1
  -88.1451416015625        30.2416992187500                1
  -88.1433105468750        30.2416992187500                1
  -88.1451416015625        30.2435302734375                1
  -88.1250000000000        30.2252197265625                1
  -88.1286621093750        30.2288818359375                1
  -88.1396484375000        30.2398681640625                1
  -88.1414794921875        30.2416992187500                1
  -88.1433105468750        30.2435302734375                1
  -88.1250000000000        30.2270507812500                1
  -88.1268310546875        30.2288818359375                1
  -88.1378173828125        30.2398681640625                1
  -88.1378173828125        30.2416992187500                1
  -87.7185058593750        30.2087402343750                1
  -87.7221679687500        30.2050781250000                1
  -87.7203369140625        30.2087402343750                1
  -87.7203369140625        30.2105712890625                1
  -87.7221679687500        30.2087402343750                1
  -87.7072660717976        30.2069091675047                7
  -87.7072660870037        30.2105712768790                9
  -87.7221679687500        30.2105712890625                1
  -87.7111816463017        30.2014160156250             2209
  -87.7072661022132        30.2142333862533               20
  -87.7239990234375        30.2105712890625                1
  -87.7072660565949        30.2032470581305                9
  -87.7072661174260        30.2178954956276               39
  -87.7239990234375        30.2124023437500                1
  -87.7276611328125        30.2087402343750                1
  -87.7109281507705        30.1995849487562               11
  -87.7093505859375        30.2010722284532              537
  -87.7072661326422        30.2215576050018               52
  -87.7109281355745        30.1959228393819               39
  -87.7072661478618        30.2252197143761               43
  -87.7109281203819        30.1922607300076               29
  -87.7072661630848        30.2288818237504               62
  -87.7313232421875        30.2105712890625                1
  -87.7109281051926        30.1885986206334               31
  -87.7072661783111        30.2325439331247               23
  -87.7109280900067        30.1849365112591              135
  -87.7072661935408        30.2362060424989               14
  -87.7109280748241        30.1812744018848               48
  -87.7072662087738        30.2398681518732                7
  -87.7109280596449        30.1776122925105               17
  -88.1231689453125        30.1571270176708                1
  -87.7109280444691        30.1739501831363               15
  -87.7072662240103        30.2435302612475               27
  -88.1195068359375        30.1571270176708                1
  -87.7109280292966        30.1702880737620               11
  -88.1158447265625        30.1571270176708                2
  -87.7109280141275        30.1666259643877               10
  -87.7072662392501        30.2471923706218                2
  -88.1121826171875        30.1571270176708                3
  -87.7109279989618        30.1629638550135               32
  -88.1085205078125        30.1571270176708                5
  -88.1048583984375        30.1571270176708                5
  -87.7109279837994        30.1593017456392               43
  -87.7166748046875        30.2435302734375                1
  -88.1011962890625        30.1571270176708                3
  -87.7130126953125        30.1593017578125                1
  -87.7185058593750        30.2435302734375                2
  -87.7130126953125        30.1571270176708              169
  -87.7203369140625        30.2435302734375                2
  -88.0920410149166        30.1611328146253              787
  -87.7166748046875        30.1571270176708                6
  -87.7221679687500        30.2435302734375                2
  -88.0517578125000        30.2069091796875                1
  -88.0535888671875        30.2087402343750                1
  -88.0554199218750        30.2105712890625                1
  -88.0572509765625        30.2124023437500                1
  -88.0590820312500        30.2142333984375                1
  -88.0938720703125        30.1571270176708                1
  -87.7203369140625        30.1571270176708             1116
  -88.0902099609375        30.1607891185727                1
  -87.7239990234375        30.1571270176708              724
  -87.7203369140625        30.2490234375000                1
  -88.0865478515625        30.1607891185727                3
  -87.7276611328125        30.1571270176708               33
  -87.7221679687500        30.2490234375000                2
  -88.0480957031250        30.2087402343750                1
  -88.0499267578125        30.2105712890625                1
  -88.0517578125000        30.2124023437500                1
  -88.0535888671875        30.2142333984375                1
  -88.0828857421875        30.1607891185727                4
  -87.7313232421875        30.1571270176708                9
  -87.7239990234375        30.2490234375000                1
  -87.7313232421875        30.2416992187500                1
  -88.0352783203125        30.1977539062500                4
  -88.0792236328125        30.1607891185727                5
  -87.7349853515625        30.1571270176708                8
  -87.7258300781250        30.2490234375000                1
  -87.7313232421875        30.2435302734375                1
  -87.7331542968750        30.2416992187500                1
  -88.0755615234375        30.1607891185727                6
  -87.7386474609375        30.1571270176708                4
  -87.7276611328125        30.2490234375000                2
  -87.7331542968750        30.2435302734375                1
  -87.7349853515625        30.2416992187500                1
  -88.0334472656250        30.1995849609375                3
  -88.0718994140625        30.1607891185727                6
  -87.7423095703125        30.1571270176708                2
  -87.7294921875000        30.2490234375000                1
  -87.7368164062500        30.2416992187500                1
  -88.0682373046875        30.1607891185727                6
  -87.7459716796875        30.1571270176708                3
  -87.7313232421875        30.2490234375000                1
  -87.7386474609375        30.2416992187500                1
  -88.0645751953125        30.1607891185727                9
  -87.7496337890625        30.1571270176708                1
  -87.7331542968750        30.2490234375000                1
  -87.7404785156250        30.2416992187500                1
  -88.0352783203125        30.2069091796875                1
  -88.0609130859375        30.1607891185727                8
  -87.7423095703125        30.2416992187500                1
  -88.0316162109375        30.2050781250000                2
  -88.0389404296875        30.1702880859375                2
  -88.0407714843750        30.1702880859375                1
  -88.0572509765625        30.1607891185727                6
  -88.0297851562500        30.2050781250000               74
  -88.0316162109375        30.2069091796875                1
  -88.0371093750000        30.1702880859375                1
  -88.0389404296875        30.1684570312500                1
  -88.0535888671875        30.1607891185727                5
  -87.7514648437500        30.2362060546875                1
  -88.0297851562500        30.2069091796875               68
  -88.0352783203125        30.1684570312500                1
  -88.0371093750000        30.1684570312500                1
  -88.0499267578125        30.1607891185727                6
  -87.7532958984375        30.2362060546875                2
  -88.0242919921875        30.2032470703125                1
  -88.0261230468750        30.2050781250000                1
  -88.0316162109375        30.1684570312500                2
  -88.0334472656250        30.1684570312500                1
  -88.0462646484375        30.1607891185727              186
  -87.7551269531250        30.2362060546875                1
  -87.7532958984375        30.2380371093750                3
  -88.0261230468750        30.2069091796875                1
  -88.0279541015625        30.2087402343750               76
  -88.0279541015625        30.1684570312500                1
  -88.0297851562500        30.1684570312500                1
  -88.0426025390625        30.1607891185727               18
  -87.7551269531250        30.2380371093750                2
  -87.7532958984375        30.2398681640625                2
  -88.0261230468750        30.1684570312500                1
  -88.0389404296875        30.1607891185727                5
  -87.7569580078125        30.2380371093750                1
  -87.7551269531250        30.2398681640625                2
  -88.0206298828125        30.2050781250000                1
  -88.0224609375000        30.2069091796875                1
  -88.0389404296875        30.2233886718750               70
  -88.0242919921875        30.1666259765625                1
  -88.0261230468750        30.1666259765625                1
  -88.0352783203125        30.1607891185727                4
  -87.7569580078125        30.2398681640625                1
  -88.0371093750000        30.2233886718750               10
  -88.0389404296875        30.2252197265625               65
  -88.0206298828125        30.1666259765625                1
  -88.0224609375000        30.1666259765625                1
  -88.0316162109375        30.1607891185727                4
  -87.7587890625000        30.2398681640625                1
  -88.0169677734375        30.2050781250000                1
  -88.0169677734375        30.1666259765625                1
  -88.0187988281250        30.1666259765625                2
  -88.0279541015625        30.1607891185727                2
  -88.0151367187500        30.2050781250000                1
  -88.0261230468750        30.2160644531250               17
  -88.0242919921875        30.1607891185727                3
  -87.7770996093750        30.2252197265625                1
  -87.7752685546875        30.2270507812500                1
  -87.7642822265625        30.2380371093750                1
  -87.7624511718750        30.2398681640625                1
  -88.0114746093750        30.2032470703125                1
  -88.0133056640625        30.2050781250000                1
  -88.0261230468750        30.2178955078125                8
  -88.0206298828125        30.1607891185727                4
  -87.7770996093750        30.2270507812500                1
  -87.7642822265625        30.2398681640625                1
  -88.0096435546875        30.2032470703125                1
  -88.0114746093750        30.2050781250000                1
  -88.0223561479076        30.7178118408607              421
  -88.0169677734375        30.1607891185727                4
  -87.7661132812500        30.2398681640625                1
  -88.0078125000000        30.2032470703125                1
  -88.0133056640625        30.1607891185727                4
  -87.7679443359375        30.2398681640625                1
  -87.7661132812500        30.2416992187500                1
  -87.7587890625000        30.2490234375000               78
  -88.0041503906250        30.2014160156250                1
  -88.0059814453125        30.2032470703125                1
  -88.0096435546875        30.1607891185727                4
  -87.7716064453125        30.2380371093750                1
  -87.7679443359375        30.2416992187500                2
  -87.7661132812500        30.2435302734375                1
  -88.0059814453125        30.1607891185727                4
  -87.7716064453125        30.2398681640625                1
  -87.7697753906250        30.2416992187500                3
  -87.7679443359375        30.2435302734375                2
  -87.7642822265625        30.2471923828125                1
  -87.7624511718750        30.2490234375000                1
  -88.0023193359375        30.1607891185727                2
  -87.7734375000000        30.2398681640625                1
  -87.7716064453125        30.2416992187500                1
  -87.7697753906250        30.2435302734375                1
  -87.7661132812500        30.2471923828125                2
  -87.7642822265625        30.2490234375000                1
  -87.9986572265625        30.1607891185727                3
  -87.7661132812500        30.2490234375000                6
  -87.7642822265625        30.2508544921875                1
  -87.9949951171875        30.1607891185727                3
  -87.7752685546875        30.2416992187500                1
  -87.7679443359375        30.2490234375000                3
  -87.7661132812500        30.2508544921875                1
  -87.7642822265625        30.2526855468750                1
  -87.9913330078125        30.1607891185727                3
  -87.7697753906250        30.2490234375000                1
  -87.7661132812500        30.2526855468750                2
  -87.9876708984375        30.1607891185727                3
  -87.7716064453125        30.2490234375000                2
  -87.7679443359375        30.2526855468750                1
  -87.9840087890625        30.1607891185727                4
  -87.7734375000000        30.2490234375000                6
  -87.7716064453125        30.2508544921875                2
  -87.7697753906250        30.2526855468750                1
  -87.9803466796875        30.1607891185727                3
  -87.7734375000000        30.2508544921875                7
  -87.9766845703125        30.1607891185727                3
  -87.7752685546875        30.2508544921875                4
  -87.9730224609375        30.1607891185727                1
  -87.7770996093750        30.2508544921875                8
  -87.9693603515625        30.1607891185727                1
  -87.7862548828125        30.2435302734375                1
  -87.7789306640625        30.2508544921875                8
  -87.7770996093750        30.2526855468750                4
  -87.9656982421875        30.1607891185727                2
  -87.7954101562500        30.2362060546875                1
  -87.7862548828125        30.2453613281250                1
  -87.7789306640625        30.2526855468750                6
  -87.9620361328125        30.1607891185727                7
  -87.7954101562500        30.2380371093750                1
  -87.7880859375000        30.2453613281250                1
  -87.7770996093750        30.2563476562500               22
  -87.7734375000000        30.2600097656250                3
  -87.9583740234375        30.1607891185727               13
  -87.7990722656250        30.2362060546875                1
  -87.7972412109375        30.2380371093750                1
  -87.7899169921875        30.2453613281250                2
  -87.7807617187500        30.2545166015625               12
  -87.7789306640625        30.2563476562500                2
  -87.7770996093750        30.2581787109375               11
  -87.7752685546875        30.2600097656250               45
  -87.7734375000000        30.2618408203125                7
  -87.9547119140625        30.1607891185727                7
  -87.7990722656250        30.2380371093750                1
  -87.7825927734375        30.2545166015625               26
  -87.7807617187500        30.2563476562500               77
  -87.7789306640625        30.2581787109375               17
  -87.7770996093750        30.2600097656250               39
  -87.7752685546875        30.2618408203125               20
  -87.9510498046875        30.1607891185727               23
  -87.8649902322497        30.1611328174590              286
  -87.7990722656250        30.2398681640625                1
  -87.7917480468750        30.2471923828125                1
  -87.7844238281250        30.2545166015625                1
  -87.7825927734375        30.2563476562500               25
  -87.7807617187500        30.2581787109375               40
  -87.7789306640625        30.2600097656250              180
  -87.7770996093750        30.2618408203125               61
  -87.9473876953125        30.1607891185727               39
  -87.8027343750000        30.2380371093750                1
  -87.7935791015625        30.2471923828125                1
  -87.7844238281250        30.2563476562500                5
  -87.7825927734375        30.2581787109375               57
  -87.7807617187500        30.2600097656250              406
  -87.7789306640625        30.2618408203125                4
  -87.9437255859375        30.1607891185727               14
  -87.8668212890625        30.1607891185727                2
  -87.8652438912006        30.1593017456392               14
  -87.8045654296875        30.2380371093750                1
  -87.8027343750000        30.2398681640625                1
  -87.7844238281250        30.2581787109375                7
  -87.7825927734375        30.2600097656250               13
  -87.9400634765625        30.1607891185727                2
  -87.8704833984375        30.1607891185727                1
  -87.8045654296875        30.2398681640625                1
  -87.7935791015625        30.2508544921875                6
  -87.7917480468750        30.2526855468750                1
  -87.7862548828125        30.2581787109375                2
  -87.9364013671875        30.1607891185727                1
  -87.7954101562500        30.2508544921875               79
  -87.7935791015625        30.2526855468750               11
  -87.7917480468750        30.2545166015625                1
  -87.7880859375000        30.2581787109375                3
  -87.7972412109375        30.2508544921875               54
  -87.7954101562500        30.2526855468750               27
  -87.7935791015625        30.2545166015625                2
  -87.7899169921875        30.2581787109375                6
  -87.9290771484375        30.1607891185727                4
  -87.7990722656250        30.2508544921875               28
  -87.7972412109375        30.2526855468750              254
  -87.7954101562500        30.2545166015625              104
  -87.7935791015625        30.2563476562500               34
  -87.7917480468750        30.2581787109375               10
  -87.7899169921875        30.2600097656250                2
  -87.9254150390625        30.1607891185727                6
  -87.7990722656250        30.2526855468750              172
  -87.7972412109375        30.2545166015625              252
  -87.7954101562500        30.2563476562500               91
  -87.7935791015625        30.2581787109375                1
  -87.7917480468750        30.2600097656250                4
  -87.9217529296875        30.1607891185727               12
  -87.8027343750000        30.2508544921875               86
  -87.8009033203125        30.2526855468750                2
  -87.7990722656250        30.2545166015625              110
  -87.7972412109375        30.2563476562500              908
  -87.7954101562500        30.2581787109375                1
  -87.7935791015625        30.2600097656250                4
  -87.7917480468750        30.2618408203125                1
  -87.9180908203125        30.1607891185727                8
  -87.8009033203125        30.2545166015625                3
  -87.7990722656250        30.2563476562500              190
  -87.7935791015625        30.2618408203125               10
  -87.8961181640625        30.1607891185727                1
  -87.8045654296875        30.2526855468750               26
  -87.7935791015625        30.2636718750000                4
  -87.9144287109375        30.1607891185727                3
  -87.8063964843750        30.2526855468750               39
  -87.8997802734375        30.1607891185727               80
  -87.8082275390625        30.2526855468750               21
  -87.8063964843750        30.2545166015625                3
  -87.9107666015625        30.1607891185727                6
  -87.8100585937500        30.2526855468750                1
  -87.8082275390625        30.2545166015625                6
  -87.8063964843750        30.2563476562500                3
  -87.9931640625000        30.6884765625000              112
  -87.9034423828125        30.1607891185727               20
  -87.8082275390625        30.2563476562500                7
  -87.9071044921875        30.1607891185727               15
  -87.8100585937500        30.2563476562500                4
  -87.8228759765625        30.2508544921875               46
  -87.8247070312500        30.2508544921875               12
  -87.8228759765625        30.2526855468750               45
  -87.8210449218750        30.2545166015625                1
  -87.8247070312500        30.2526855468750               14
  -87.8228759765625        30.2545166015625              113
  -87.8247070312500        30.2545166015625                6
  -87.8228759765625        30.2563476562500               50
  -87.8247070312500        30.2563476562500                2
  -87.8356933593750        30.2526855468750               10
  -87.8430175781250        30.2471923828125               15
  -87.8356933593750        30.2545166015625                3
  -87.8466796875000        30.2453613281250                9
  -87.8448486328125        30.2471923828125               14
  -87.8430175781250        30.2490234375000               14
  -87.8411865234375        30.2508544921875                7
  -87.8485107421875        30.2453613281250               33
  -87.8466796875000        30.2471923828125               22
  -87.8411865234375        30.2526855468750              132
  -87.8485107421875        30.2471923828125              254
  -87.8155517578125        30.2801513671875                3
  -87.7880859375000        30.3076171875000               13
  -87.8173828125000        30.2801513671875                9
  -87.8192138671875        30.2819824218750                7
  -87.8210449218750        30.2819824218750                8
  -87.8228759765625        30.2838134765625               11
  -87.8247070312500        30.2838134765625               13
  -87.8265380859375        30.2838134765625                8
  -87.8283691406250        30.2838134765625               11
  -87.8265380859375        30.2856445312500                9
  -87.8283691406250        30.2856445312500                1
  -87.8173828125000        30.3369140625000               14
  -87.8613281250000        30.2966308593750                4
  -87.8613281250000        30.2984619140625                6
  -87.8631591796875        30.2984619140625                8
  -87.8631591796875        30.3002929687500                6
  -87.8649902343750        30.3002929687500                9
  -87.8668212890625        30.3021240234375                8
  -87.8686523437500        30.3021240234375                4
  -87.8686523437500        30.3039550781250                2
  -87.8704833984375        30.3039550781250                8
  -87.8723144531250        30.3057861328125                5
  -87.8741455078125        30.3057861328125                7
  -87.8759765625000        30.3076171875000                5
  -87.8778076171875        30.3076171875000                4
  -87.8796386718750        30.3094482421875                4
  -87.8814697265625        30.3112792968750                5
  -87.8833007812500        30.3131103515625                5
  -87.8851318359375        30.3131103515625                8
  -87.8869628906250        30.3131103515625                1
  -87.8869628906250        30.3149414062500                6
  -87.8887939453125        30.3149414062500                6
  -87.8906250000000        30.3149414062500                7
  -87.8924560546875        30.3167724609375                4
  -87.8942871093750        30.3167724609375                6
  -87.8961181640625        30.3186035156250                4
  -87.8979492187500        30.3204345703125                3
  -87.8997802734375        30.3222656250000                5
  -87.9162597656250        30.3295898437500                2
  -87.9180908203125        30.3314208984375                2
  -87.9199218750000        30.3332519531250                6
  -87.9217529296875        30.3350830078125                5
  -87.9235839843750        30.3369140625000                1
  -87.9016113281250        30.3240966796875                5
  -87.9125976562500        30.3277587890625                1
  -87.9144287109375        30.3295898437500                9
  -87.9162597656250        30.3314208984375                4
  -87.9180908203125        30.3332519531250                5
  -87.9199218750000        30.3350830078125                1
  -87.9217529296875        30.3369140625000                5
  -87.9235839843750        30.3387451171875                1
  -87.9034423828125        30.3240966796875                5
  -87.9107666015625        30.3277587890625                5
  -87.9125976562500        30.3295898437500                7
  -87.9217529296875        30.3387451171875                4
  -87.9071044921875        30.3259277343750                6
  -87.9089355468750        30.3277587890625                5
  -87.9199218750000        30.3387451171875                2
  -87.9052734375000        30.3259277343750                5
  -87.9199218750000        30.3405761718750                7
  -87.9217529296875        30.3424072265625                8
  -87.9217529296875        30.3442382812500               10
  -87.9235839843750        30.3460693359375                2
  -87.9217529296875        30.3460693359375                7
  -87.9235839843750        30.3479003906250                6
  -87.9217529296875        30.3479003906250                3
  -87.9235839843750        30.3497314453125                3
  -87.9217529296875        30.3497314453125                2
  -87.9235839843750        30.3515625000000                6
  -87.9620361328125        30.5438232421875                7
  -87.9235839843750        30.3533935546875                2
  -87.9602050781250        30.5419921875000               10
  -87.9583740234375        30.5419921875000                9
  -87.9583740234375        30.5401611328125               12
  -87.9565429687500        30.5383300781250                6
  -87.9711914062500        30.4376220703125                2
  -87.9693603515625        30.4357910156250                2
  -87.9675292968750        30.4339599609375                2
  -87.9656982421875        30.4321289062500                2
  -87.9638671875000        30.4302978515625                1
  -87.9730224609375        30.4412841796875                2
  -87.9711914062500        30.4394531250000                2
  -87.9693603515625        30.4376220703125                2
  -87.9675292968750        30.4357910156250                3
  -87.9656982421875        30.4339599609375                2
  -87.9638671875000        30.4321289062500                3
  -87.9620361328125        30.4302978515625                2
  -87.9730224609375        30.4431152343750                2
  -87.9711914062500        30.4412841796875                2
  -87.9620361328125        30.4321289062500                1
  -87.9711914062500        30.4449462890625                1
  -87.9693603515625        30.4449462890625                1
  -87.9254150390625        30.4028320312500                2
  -87.9272460937500        30.4046630859375               22
  -87.9290771484375        30.4064941406250               43
  -87.9711914062500        30.4486083984375                1
  -87.9693603515625        30.4467773437500                3
  -87.9217529296875        30.4010009765625               14
  -87.9235839843750        30.4028320312500                8
  -87.9254150390625        30.4046630859375                3
  -87.9272460937500        30.4064941406250               84
  -87.9290771484375        30.4083251953125               14
  -87.9693603515625        30.4486083984375                2
  -87.9162597656250        30.3973388671875                6
  -87.9180908203125        30.3991699218750               20
  -87.9199218750000        30.4010009765625               22
  -87.9217529296875        30.4028320312500                5
  -87.9235839843750        30.4046630859375                7
  -87.9254150390625        30.4064941406250               20
  -87.9272460937500        30.4083251953125               14
  -87.9290771484375        30.4101562500000               24
  -87.9693603515625        30.4504394531250                1
  -87.9144287109375        30.3973388671875                6
  -87.9162597656250        30.3991699218750                7
  -87.9180908203125        30.4010009765625                6
  -87.9125976562500        30.3973388671875               14
  -87.9089355468750        30.3955078125000                9
  -87.9675292968750        30.4541015625000               10
  -87.9656982421875        30.4522705078125                9
  -87.9071044921875        30.3955078125000               33
  -87.9089355468750        30.3973388671875               53
  -87.9638671875000        30.4522705078125               12
  -87.9620361328125        30.4504394531250               15
  -87.9602050781250        30.4486083984375               11
  -87.9583740234375        30.4467773437500                1
  -87.9052734375000        30.3955078125000             1458
  -87.9583740234375        30.4486083984375                8
  -87.9565429687500        30.4467773437500               16
  -87.9052734375000        30.3973388671875                8
  -87.9602050781250        30.4595947265625                2
  -87.9583740234375        30.4595947265625                2
  -87.9583740234375        30.4614257812500                3
  -87.9418945312500        30.4870605468750                3
  -87.9565429687500        30.4632568359375                3
  -87.9418945312500        30.4852294921875                3
  -87.9400634765625        30.4870605468750                1
  -87.9492187500000        30.4760742187500                1
  -87.9473876953125        30.4779052734375                8
  -87.9400634765625        30.4852294921875                4
  -87.9547119140625        30.4650878906250                3
  -87.9528808593750        30.4705810546875                4
  -87.9510498046875        30.4724121093750                4
  -87.9492187500000        30.4742431640625                1
